# .PCD v0.7 - Point Cloud Data file format
VERSION 0.7
FIELDS x y z rgba
SIZE 4 4 4 4
TYPE F F F U
COUNT 1 1 1 1
WIDTH 1082
HEIGHT 1
VIEWPOINT 0 0 0 1 0 0 0
POINTS 1082
DATA ascii
0.030158043 0.1972113 0.19900213 4282601300
0.032989819 0.19721094 0.19900389 4282535507
0.035821602 0.19721058 0.19900566 4282601300
0.038459994 0.19622101 0.1980065 4282666839
0.041277543 0.19622064 0.19800825 4283325022
0.044095092 0.19622028 0.19801001 4283193437
0.04691264 0.19621992 0.19801177 4283193437
0.049730189 0.19621955 0.19801354 4282535252
0.052547738 0.19621919 0.1980153 4282731602
0.055365287 0.19621883 0.19801706 4283389787
0.057889838 0.19522925 0.19701782 4283258971
0.060693156 0.19522889 0.19701956 4281877838
0.063496485 0.19522852 0.19702132 4282074447
0.066299796 0.19522816 0.19702308 4282272337
0.069103114 0.1952278 0.19702484 4283061081
0.071542285 0.19423823 0.19602554 4283455580
0.074331373 0.19423787 0.19602728 4283257173
0.077120468 0.19423752 0.19602902 4282862672
0.079909556 0.19423716 0.19603077 4282930519
0.082698643 0.1942368 0.19603251 4282536023
0.085487738 0.19423644 0.19603425 4283061597
0.088276826 0.19423607 0.196036 4283521886
0.091065906 0.19423571 0.19603774 4282863442
0.093855001 0.19423535 0.19603948 4282534736
0.096151881 0.19324581 0.19504009 4282863958
0.098926723 0.19324546 0.19504184 4283323993
0.10170159 0.19324511 0.19504356 4282862926
0.10447644 0.19324476 0.19504531 4282534218
0.10725131 0.1932444 0.19504704 4283258455
0.11002617 0.19324404 0.19504876 4282666061
0.11222342 0.19225451 0.19404931 4282995283
0.11498405 0.19225416 0.19405104 4283389787
0.11774468 0.1922538 0.19405277 4282798420
0.12050532 0.19225344 0.1940545 4282600530
0.12326594 0.19225308 0.19405623 4282864217
0.12602657 0.19225273 0.19405796 4283522402
0.12812422 0.19126321 0.19305843 4282535507
0.13087063 0.19126287 0.19306016 4282206542
0.13361701 0.19126251 0.19306187 4283127391
0.13636342 0.19126216 0.19306359 4282995295
0.13767004 0.18928349 0.19106276 4282798165
0.13891971 0.18730484 0.1890619 4282203701
0.14086083 0.18631534 0.18806228 4281870095
0.14277348 0.18532585 0.18706265 4282265107
0.1454345 0.1853255 0.18706432 4283909409
0.14809552 0.18532516 0.18706597 4283448858
0.15075654 0.18532482 0.18706764 4282858007
0.15341756 0.18532448 0.18706931 4282725911
0.15607858 0.18532413 0.18707097 4282528527
0.1587396 0.18532379 0.18707263 4283514652
0.16140062 0.18532345 0.1870743 4283054101
0.16406162 0.1853231 0.18707597 4283450399
0.165832 0.18433365 0.18607624 4281936905
0.16847877 0.18433331 0.18607791 4282198793
0.17112556 0.18433297 0.18607956 4282330646
0.17377235 0.18433262 0.18608122 4282264598
0.17641914 0.18433228 0.18608287 4282067984
0.17906594 0.18433194 0.18608452 4281871119
0.18171272 0.1843316 0.18608618 4281937167
0.18435951 0.18433127 0.18608783 4281476616
0.18700631 0.18433093 0.18608949 4282135060
0.18965308 0.18433058 0.18609114 4282135314
0.19229987 0.18433024 0.18609279 4282266130
0.19494668 0.1843299 0.18609446 4282331409
0.19759345 0.18432955 0.18609612 4282397972
0.20024024 0.18432921 0.18609777 4282200337
0.20179716 0.18333976 0.18509792 4281804810
0.2044297 0.18333942 0.18509956 4281476616
0.20706226 0.18333909 0.18510121 4281936658
0.20969482 0.18333875 0.18510285 4281870865
0.21232738 0.1833384 0.1851045 4282133007
0.21495993 0.18333806 0.18510614 4282198800
0.21641727 0.18234864 0.18410625 4282067983
0.21903558 0.1823483 0.18410788 4281410823
0.22165392 0.18234795 0.18410952 4281278980
0.22427224 0.18234763 0.18411116 4282001935
0.22689058 0.18234728 0.1841128 4281673484
0.22950891 0.18234695 0.18411443 4281410568
0.23086658 0.18135755 0.18311445 4281607952
0.23347068 0.1813572 0.18311608 4281673747
0.23607478 0.18135688 0.18311772 4281608461
0.23867887 0.18135653 0.18311934 4281476620
0.24128297 0.18135621 0.18312097 4281016584
0.24388707 0.18135586 0.18312261 4281937940
0.24649116 0.18135554 0.18312423 4281346319
0.24909526 0.18135519 0.18312585 4280820236
0.25169939 0.18135487 0.18312749 4280558094
0.25291476 0.18036544 0.18212742 4280360458
0.25550464 0.18036512 0.18212904 4280952335
0.25809449 0.18036479 0.18213066 4281346064
0.26068437 0.18036444 0.18213227 4280163074
0.26327425 0.18036412 0.1821339 4280031233
0.2658641 0.18036379 0.18213552 4281411089
0.26845396 0.18036345 0.18213713 4281016331
0.27104381 0.18036312 0.18213876 4280621835
0.27213115 0.17937373 0.1811386 4280752905
0.27470678 0.17937338 0.18114023 4280490503
0.27728242 0.17937306 0.18114184 4280489994
0.27831283 0.17838368 0.18014164 4280884231
0.28087422 0.17838335 0.18014325 4281148172
0.28343564 0.17838302 0.18014486 4280885259
0.28599706 0.17838269 0.18014646 4281345294
0.28855845 0.17838237 0.18014807 4281081608
0.29111987 0.17838204 0.18014966 4281147148
0.29368129 0.1783817 0.18015127 4280622089
0.29459783 0.17739232 0.17915101 4280556296
0.29714504 0.17739199 0.17915261 4281147656
0.29969218 0.17739166 0.17915419 4281476619
0.30223933 0.17739134 0.17915578 4281608461
0.3047865 0.17739101 0.17915738 4281542413
0.30733371 0.17739068 0.17915897 4281345037
0.30988088 0.17739035 0.17916057 4280884231
0.31068361 0.17640103 0.17816024 4280358660
0.31321657 0.17640071 0.17816183 4280885004
0.3157495 0.17640038 0.17816341 4280620548
0.31828243 0.17640005 0.17816499 4280227844
0.32081541 0.17639972 0.17816658 4280228359
0.32153273 0.17541037 0.17716619 4280359431
0.32405144 0.17541005 0.17716777 4280162058
0.32657018 0.17540972 0.17716935 4280621580
0.3290889 0.17540941 0.17717093 4281082124
0.33160761 0.17540908 0.1771725 4280555780
0.33412632 0.17540875 0.17717408 4280753159
0.33664504 0.17540842 0.17717566 4279635968
0.33916378 0.17540811 0.17717724 4279768578
0.34168249 0.17540778 0.1771788 4280227844
0.34225753 0.17441846 0.17617835 4279899650
0.34476203 0.17441814 0.17617992 4280294152
0.34726653 0.17441782 0.17618148 4279833602
0.34977099 0.1744175 0.17618304 4279636483
0.35227549 0.17441717 0.17618462 4279571458
0.35477999 0.17441685 0.17618619 4279965702
0.35728446 0.17441653 0.17618775 4279899396
0.35978895 0.1744162 0.17618932 4280228360
0.36023593 0.17342693 0.17518876 4280425224
0.36272618 0.1734266 0.17519033 4279899650
0.3652164 0.17342629 0.17519188 4279965700
0.36770669 0.17342596 0.17519344 4280688394
0.37019694 0.17342564 0.17519499 4280360199
0.37268722 0.17342532 0.17519656 4280097543
0.37517747 0.173425 0.17519811 4279702276
0.37766775 0.17342468 0.17519967 4279965447
0.38015798 0.17342436 0.17520122 4279898371
0.38264823 0.17342404 0.17520279 4279702276
0.38513851 0.17342372 0.17520435 4279176193
0.38762876 0.17342339 0.1752059 4279769353
0.38789076 0.17243411 0.17420524 4279571460
0.39036679 0.17243378 0.17420679 4279898625
0.3928428 0.17243347 0.17420834 4279964418
0.39531881 0.17243315 0.17420988 4279767555
0.39550963 0.17144388 0.17320918 4280228106
0.39797142 0.17144357 0.17321071 4280096263
0.40043324 0.17144324 0.17321226 4279504896
0.40289503 0.17144293 0.17321379 4279571206
0.40535679 0.17144261 0.17321533 4279833348
0.40781862 0.1714423 0.17321688 4279570690
0.41028041 0.17144197 0.17321841 4279241472
0.4127422 0.17144166 0.17321995 4279570181
0.41520402 0.17144135 0.1732215 4279636483
0.41525254 0.17045207 0.17222069 4279505411
0.41770011 0.17045176 0.17222223 4279636483
0.42014769 0.17045145 0.17222376 4279702276
0.42259523 0.17045113 0.1722253 4279570690
0.42504281 0.17045082 0.17222682 4279702276
0.42749038 0.17045051 0.17222835 4279243008
0.42743927 0.16946128 0.1712275 4279045632
0.4298726 0.16946097 0.17122902 4279439365
0.43230596 0.16946065 0.17123054 4279505674
0.43473929 0.16946034 0.17123206 4279308293
0.43717262 0.16946003 0.17123358 4279439365
0.43960598 0.16945972 0.1712351 4279110400
0.44203931 0.1694594 0.17123662 4279307265
0.44447264 0.16945909 0.17123815 4279701507
0.446906 0.16945878 0.17123967 4279833094
0.4493393 0.16945846 0.17124119 4279570435
0.45177263 0.16945815 0.17124271 4279176448
0.45420599 0.16945784 0.17124423 4279177221
0.45396993 0.16846861 0.17024326 4279505412
0.45638904 0.1684683 0.17024477 4279898887
0.4561103 0.1674791 0.16924378 4279898371
0.45580304 0.16648988 0.16824277 4279964418
0.45546734 0.16550069 0.16724172 4280423685
0.45236266 0.16352259 0.16523813 4280030212
0.44920099 0.1615445 0.1632345 4281610012
0.43435723 0.15462168 0.15621944 4282531113
0.43098217 0.15264362 0.15421569 4282793517
0.4331736 0.15264334 0.15421706 4283056943
0.43536502 0.15264305 0.15421844 4283056943
0.43755648 0.15264277 0.15421981 4283188275
0.42850173 0.14374073 0.1452067 4283451697
0.43056512 0.14374046 0.145208 4283583026
0.43262845 0.14374019 0.14520928 4283451697
-2.7173748 2.8444338 2.833492 4282993744
-2.7082465 2.8775578 2.8665254 4282863442
-0.1586757 0.21016702 0.20889479 4282731602
-0.15570162 0.21016665 0.20889665 4283783776
-0.15272754 0.21016626 0.20889851 4283192407
-0.14975347 0.21016587 0.20890038 4282665550
-0.14677939 0.2101655 0.20890224 4283981409
-0.1438053 0.21016511 0.20890409 4283192407
-0.14083123 0.21016473 0.20890595 4283324000
-0.13785714 0.21016434 0.20890781 4283127390
-0.13488306 0.21016397 0.20890968 4282272082
-0.13190898 0.21016358 0.20891154 4283587941
-0.12831718 0.20915933 0.20791294 4283521632
-0.12535733 0.20915894 0.2079148 4282930010
-0.12239748 0.20915857 0.20791665 4282009679
-0.11943763 0.20915818 0.20791849 4282601816
-0.11647778 0.20915781 0.20792034 4283588195
-0.11351793 0.20915742 0.20792219 4283785315
-0.11055809 0.20915705 0.20792405 4282338896
-0.10759823 0.20915666 0.2079259 4282534736
-0.10463838 0.20915629 0.20792775 4283062621
-0.10118888 0.20815206 0.20692909 4283062621
-0.098243266 0.20815167 0.20693092 4283062621
-0.09529765 0.2081513 0.20693277 4283062621
-0.091905057 0.20714708 0.20593405 4282930265
-0.088973671 0.20714669 0.20593588 4282273364
-0.086042278 0.20714632 0.20593771 4282404698
-0.083110891 0.20714594 0.20593955 4282863449
-0.080179498 0.20714556 0.20594138 4283126875
-0.077248111 0.20714518 0.20594323 4283653472
-0.073955141 0.20614097 0.20494445 4283653474
-0.071037985 0.20614058 0.20494626 4283719267
-0.068120822 0.20614021 0.20494808 4283324768
-0.064884759 0.205136 0.20394927 4282469975
-0.061981838 0.20513563 0.20395109 4283455584
-0.059078906 0.20513526 0.20395291 4283521886
-0.056175981 0.20513488 0.20395473 4282075725
-0.053273048 0.20513451 0.20395653 4283062105
-0.050370123 0.20513414 0.20395835 4282536277
-0.047467191 0.20513377 0.20396017 4282272848
-0.04434498 0.20412958 0.20296128 4282272594
-0.041456278 0.2041292 0.20296308 4283193950
-0.03856758 0.20412883 0.2029649 4282734170
-0.035678882 0.20412846 0.2029667 4281812813
-0.03279018 0.20412809 0.20296851 4282140240
-0.029753346 0.20312391 0.20196956 4282338903
-0.026878877 0.20312354 0.20197137 4282799963
-0.024004409 0.20312317 0.20197317 4282273619
-0.02112994 0.20312279 0.20197496 4283391330
-0.01825547 0.20312242 0.20197676 4282930265
-0.015381002 0.20312206 0.20197856 4282996828
-0.012506533 0.20312169 0.20198035 4282207571
-0.0095835403 0.20211753 0.20098135 4282601300
-0.0067233015 0.20211716 0.20098314 4282733141
-0.0038630625 0.20211679 0.20098493 4282930779
-0.0010028235 0.20211641 0.20098671 4282141265
0.0018574157 0.20211606 0.2009885 4281877838
0.0047176545 0.20211568 0.20099029 4282601561
0.0075778933 0.20211531 0.20099208 4282930265
0.010387045 0.20111117 0.199993 4283587425
0.013233054 0.20111081 0.19999477 4282733145
0.016079063 0.20111044 0.19999656 4282601816
0.018831296 0.20010631 0.19899745 4282601300
0.021663077 0.20010595 0.19899923 4281482817
0.024494855 0.20010558 0.199001 4282995287
0.027326632 0.20010522 0.19900277 4283126874
0.030158414 0.20010485 0.19900453 4282930519
0.032990191 0.20010449 0.1990063 4281811524
0.035821971 0.20010412 0.19900808 4282338642
0.038460363 0.1991 0.19800889 4282404435
0.041277912 0.19909963 0.19801065 4283127644
0.04409546 0.19909927 0.19801241 4283127644
0.046913009 0.19909891 0.19801418 4283456863
0.049730558 0.19909854 0.19801594 4282666839
0.052548107 0.19909818 0.1980177 4282863958
0.055365656 0.19909783 0.19801946 4283126874
0.057890207 0.19809371 0.1970202 4282665808
0.060693525 0.19809335 0.19702196 4282007881
0.06349685 0.19809298 0.1970237 4282140240
0.066300161 0.19809262 0.19702546 4282075472
0.069103487 0.19809227 0.19702722 4282995287
0.07154265 0.19708815 0.1960279 4283061081
0.074331738 0.19708779 0.19602965 4282928721
0.077120833 0.19708744 0.19603139 4282797649
0.079909921 0.19708708 0.19603314 4282996312
0.082699008 0.19708672 0.19603488 4282799193
0.085488103 0.19708636 0.19603662 4283193437
0.088277191 0.19708599 0.19603837 4283325021
0.091066271 0.19708563 0.19604011 4282665808
0.093377374 0.19608155 0.19504072 4282206288
0.096152239 0.19608119 0.19504246 4282601554
0.098927088 0.19608083 0.19504419 4283192407
0.10170195 0.19608048 0.19504593 4282798418
0.10447681 0.19608013 0.19504766 4282206281
0.10725167 0.19607978 0.19504941 4282601300
0.10946316 0.19507569 0.19404994 4282733141
0.11222379 0.19507535 0.19405167 4283061589
0.11498442 0.19507499 0.1940534 4283062360
0.11774504 0.19507463 0.19405513 4282667348
0.12050568 0.19507428 0.19405685 4283323993
0.12326629 0.19507392 0.19405858 4282403407
0.12602694 0.19507356 0.19406031 4283127644
0.12812458 0.1940695 0.19306077 4282337614
0.13087098 0.19406916 0.1930625 4282731602
0.13361737 0.1940688 0.19306421 4283060053
0.13636377 0.19406845 0.19306593 4283258462
0.13767038 0.19206072 0.19106509 4282140495
0.13892007 0.19005299 0.18906419 4282731336
0.14086117 0.18904895 0.18806456 4282199314
0.14277384 0.18804492 0.18706492 4282528534
0.14543486 0.18804458 0.18706658 4283119895
0.14809588 0.18804424 0.18706824 4282593551
0.1507569 0.18804389 0.18706991 4282462734
0.15341792 0.18804355 0.18707158 4282462479
0.15607893 0.18804321 0.18707325 4282067721
0.15873995 0.18804286 0.1870749 4281410305
0.16140097 0.18804252 0.18707657 4281936397
0.16406196 0.18804218 0.18707824 4281805579
0.16583234 0.18703815 0.1860785 4281345282
0.16847913 0.18703781 0.18608016 4282791705
0.17112592 0.18703747 0.18608181 4283383072
0.17377271 0.18703713 0.18608347 4282001935
0.1764195 0.18703678 0.18608512 4282397718
0.1790663 0.18703644 0.18608677 4282068750
0.18171307 0.1870361 0.18608843 4281673738
0.18435986 0.18703577 0.18609008 4281673484
0.18700667 0.18703543 0.18609175 4282134805
0.18965343 0.18703508 0.1860934 4282529563
0.19230022 0.18703474 0.18609506 4282003217
0.19494702 0.1870344 0.18609671 4282069781
0.19759379 0.18703406 0.18609837 4282003472
0.20024058 0.18703371 0.18610002 4281806858
0.20288737 0.18703339 0.18610168 4282660113
0.20443006 0.18602939 0.18510181 4281541377
0.20706262 0.18602905 0.18510345 4281937167
0.20856261 0.18502508 0.18410356 4282003217
0.21118096 0.18502475 0.1841052 4281673484
0.21379927 0.18502441 0.18410684 4282134035
0.21641761 0.18502408 0.18410848 4281805326
0.21903592 0.18502374 0.18411012 4282068496
0.22165427 0.1850234 0.18411174 4281673993
0.22427258 0.18502307 0.18411338 4281739786
0.22689092 0.18502273 0.18411502 4281344005
0.22826283 0.18401876 0.18311505 4280884740
0.23086692 0.18401843 0.18311667 4280951306
0.23347102 0.18401809 0.1831183 4281148426
0.23607512 0.18401776 0.18311994 4282003219
0.23867922 0.18401742 0.18312156 4282200344
0.24128331 0.18401709 0.18312319 4281673745
0.24388741 0.18401675 0.18312483 4281673745
0.24649151 0.18401642 0.18312645 4281017100
0.2490956 0.18401608 0.18312807 4281082893
0.25032523 0.18301214 0.18212801 4280622862
0.25291508 0.1830118 0.18212962 4280294152
0.25550497 0.18301147 0.18213125 4280688394
0.25809482 0.18301114 0.18213287 4280885513
0.2606847 0.1830108 0.18213448 4280489985
0.26327458 0.18301047 0.1821361 4280819466
0.26586443 0.18301015 0.18213773 4281542159
0.26698023 0.18200621 0.18113758 4280621573
0.26955587 0.18200588 0.1811392 4280884488
0.2721315 0.18200554 0.18114081 4280753418
0.27470714 0.18200521 0.18114242 4281082124
0.27575174 0.18100129 0.18014222 4280687366
0.27831316 0.18100096 0.18014383 4280162311
0.28087455 0.18100064 0.18014543 4280558094
0.28343597 0.18100031 0.18014704 4280555780
0.28599739 0.18099998 0.18014863 4281147917
0.28855878 0.18099965 0.18015024 4281411089
0.2911202 0.18099931 0.18015185 4280424453
0.29205099 0.1799954 0.17915158 4281277964
0.29459816 0.17999507 0.17915317 4280884490
0.29714537 0.17999475 0.17915477 4280886284
0.29969254 0.17999442 0.17915636 4280688394
0.30223969 0.17999409 0.17915796 4280490503
0.30478686 0.17999376 0.17915955 4280358406
0.30733407 0.17999344 0.17916115 4280489478
0.30988124 0.17999311 0.17916274 4281476111
0.31242841 0.17999278 0.17916434 4281015560
0.31321689 0.1789889 0.17816399 4281016847
0.31574982 0.17898858 0.17816557 4280292867
0.31828275 0.17898825 0.17816715 4280161542
0.32081574 0.17898792 0.17816874 4280096772
0.32334867 0.17898759 0.17817032 4280228359
0.32405177 0.1779837 0.17716992 4281675029
0.32657051 0.17798337 0.1771715 4281017100
0.32908922 0.17798306 0.17717308 4280556550
0.33160794 0.17798273 0.17717464 4281016845
0.33412665 0.1779824 0.17717622 4280227843
0.33664536 0.17798208 0.1771778 4280293892
0.33916411 0.17798176 0.17717938 4280425478
0.34168282 0.17798144 0.17718095 4280425478
0.34225786 0.17697757 0.17618048 4279768837
0.34476236 0.17697725 0.17618205 4280030979
0.34726685 0.17697693 0.17618361 4280030466
0.34977132 0.17697661 0.17618519 4280425224
0.35227582 0.17697628 0.17618676 4280360199
0.35478032 0.17697597 0.17618832 4280228359
0.35728478 0.17697564 0.17618988 4280621573
0.35978928 0.17697531 0.17619145 4280359685
0.36023626 0.17597148 0.1751909 4280754443
0.36272651 0.17597115 0.17519245 4280951052
0.36521673 0.17597084 0.17519401 4280688395
0.36770701 0.17597051 0.17519556 4280227844
0.37019727 0.17597018 0.17519712 4280162049
0.37268755 0.17596987 0.17519867 4280162820
0.3751778 0.17596954 0.17520024 4280358660
0.37766808 0.17596923 0.17520179 4280162565
0.38015831 0.1759689 0.17520335 4280030466
0.38264856 0.17596859 0.1752049 4280292613
0.38513884 0.17596826 0.17520647 4279439619
0.38541499 0.17496444 0.17420579 4279439618
0.38789105 0.17496413 0.17420734 4279505412
0.39036709 0.1749638 0.17420889 4279504642
0.3928431 0.17496349 0.17421044 4279439619
0.39531913 0.17496318 0.17421199 4279439619
0.39550996 0.17395936 0.17321128 4279768069
0.39797175 0.17395905 0.17321281 4279176448
0.40043357 0.17395872 0.17321436 4279307520
0.40289536 0.17395841 0.1732159 4279833094
0.40535712 0.17395809 0.17321743 4279768071
0.40781894 0.17395778 0.17321898 4279241472
0.41028073 0.17395745 0.17322052 4279373570
0.41274253 0.17395714 0.17322205 4279439619
0.41280532 0.17295334 0.17222126 4279964673
0.41525286 0.17295302 0.17222278 4279965955
0.41770044 0.17295271 0.17222431 4279965700
0.42014802 0.1729524 0.17222585 4279636992
0.42259556 0.17295209 0.17222738 4279373570
0.42504314 0.17295177 0.1722289 4280097034
0.42749068 0.17295146 0.17223044 4279898372
0.4274396 0.17194767 0.17122957 4279570181
0.42987293 0.17194736 0.17123109 4278979328
0.43230629 0.17194705 0.17123261 4279374086
0.43473962 0.17194673 0.17123413 4279635976
0.43717295 0.17194642 0.17123565 4279439110
0.43960631 0.17194611 0.17123717 4279505158
0.44203964 0.1719458 0.17123871 4279176193
0.44447297 0.17194548 0.17124023 4279768073
0.44690633 0.17194517 0.17124175 4279636999
0.44933963 0.17194486 0.17124327 4279635974
0.45177296 0.17194454 0.17124479 4279898887
0.45420632 0.17194423 0.17124631 4279702276
0.45663965 0.17194392 0.17124783 4279965447
0.45638937 0.17094016 0.17024684 4279768069
0.4561106 0.16993642 0.16924584 4279636483
0.45580336 0.16893268 0.16824481 4279832839
0.45546767 0.16792892 0.16724375 4280161288
0.45236295 0.16592175 0.16524014 4280096518
0.44920129 0.16391458 0.16323648 4281479194
0.44321373 0.16090401 0.16023023 4282333475
0.43714079 0.1578934 0.15722391 4282399782
0.43377993 0.15588626 0.15522014 4282530599
0.43317389 0.15488257 0.15421893 4282794026
0.43536532 0.15488228 0.1542203 4283056942
0.42850199 0.14584908 0.14520846 4283254832
-0.1586753 0.21320596 0.20889732 4282732118
-0.15570123 0.21320558 0.20889919 4283454811
-0.15272716 0.2132052 0.20890105 4283520343
-0.14975308 0.21320482 0.20890291 4282862926
-0.146779 0.21320443 0.20890477 4283783774
-0.14380491 0.21320406 0.20890662 4283389787
-0.14083084 0.21320367 0.20890848 4283389534
-0.13785675 0.21320328 0.20891035 4283455072
-0.13488267 0.21320291 0.20891221 4282600791
-0.13127664 0.2121841 0.20791361 4283653990
-0.12831679 0.21218371 0.20791547 4282732886
-0.12535694 0.21218333 0.20791732 4282864217
-0.12239709 0.21218295 0.20791917 4282205773
-0.11943724 0.21218257 0.20792101 4282403412
-0.11647739 0.21218219 0.20792286 4283390816
-0.11351755 0.21218181 0.20792472 4283521632
-0.1105577 0.21218143 0.20792657 4282996828
-0.10759784 0.21218105 0.20792842 4281878091
-0.104638 0.21218067 0.20793027 4282931296
-0.1011885 0.21116193 0.20693159 4283062880
-0.098242879 0.21116154 0.20693344 4282865502
-0.094836064 0.21014276 0.20593472 4282931295
-0.091904677 0.21014239 0.20593655 4282732633
-0.088973291 0.210142 0.20593838 4282535768
-0.086041898 0.21014163 0.20594022 4281549908
-0.083110511 0.21014126 0.20594205 4282206808
-0.080179118 0.21014087 0.20594388 4282338389
-0.077247731 0.2101405 0.20594572 4282732891
-0.073954761 0.20912175 0.20494692 4283324255
-0.071037605 0.20912138 0.20494875 4283521633
-0.068120442 0.209121 0.20495057 4283193184
-0.06488438 0.20810227 0.20395175 4282469205
-0.061981458 0.2081019 0.20395356 4283456609
-0.059078526 0.20810153 0.20395538 4283456609
-0.056175601 0.20810115 0.2039572 4282272590
-0.053272668 0.20810078 0.203959 4282996312
-0.050369743 0.20810041 0.20396082 4282272594
-0.047466811 0.20810004 0.20396264 4282733399
-0.0443446 0.20708129 0.20296374 4282667093
-0.041455898 0.20708092 0.20296554 4283390816
-0.0385672 0.20708054 0.20296736 4283325537
-0.035678506 0.20708017 0.20296916 4281483849
-0.032789804 0.2070798 0.20297097 4282141265
-0.02975297 0.20606109 0.20197202 4281681487
-0.0268785 0.20606072 0.20197381 4282208086
-0.024004033 0.20606035 0.20197561 4282076754
-0.021129563 0.20605998 0.20197742 4283457125
-0.018255094 0.2060596 0.20197921 4282470230
-0.015380626 0.20605925 0.20198101 4283062367
-0.012443406 0.20504051 0.20098199 4281680968
-0.0095831659 0.20504016 0.20098378 4282469714
-0.0067229271 0.20503978 0.20098557 4282732886
-0.0038626879 0.20503941 0.20098735 4283194205
-0.001002449 0.20503904 0.20098914 4282141776
0.0018577902 0.20503868 0.20099095 4282010193
0.0047180289 0.20503831 0.20099273 4282864733
0.0075414097 0.20401964 0.19999364 4282732372
0.010387418 0.20401926 0.19999543 4283521632
0.013233428 0.20401889 0.1999972 4282470228
0.016079437 0.20401853 0.19999897 4282338389
0.018831667 0.20299985 0.19899987 4282469968
0.021663448 0.20299949 0.19900164 4281943111
0.024495225 0.20299911 0.19900341 4283127128
0.027327003 0.20299876 0.19900519 4283061081
0.030158784 0.20299838 0.19900694 4282075472
0.03299056 0.20299803 0.19900872 4281943629
0.035643183 0.20197937 0.19800954 4282666839
0.038460732 0.20197901 0.19801129 4282535252
0.04127828 0.20197864 0.19801305 4283127644
0.044095829 0.20197828 0.19801481 4282996828
0.046913378 0.20197792 0.19801658 4283193950
0.049730927 0.20197755 0.19801834 4282074701
0.052548476 0.20197719 0.1980201 4282601300
0.055087253 0.20095852 0.19702084 4282863958
0.057890575 0.20095816 0.19702259 4282272082
0.06069389 0.2009578 0.19702435 4282600531
0.063497216 0.20095743 0.1970261 4282600530
0.066300526 0.20095707 0.19702785 4282140495
0.069103852 0.20095672 0.19702961 4282666839
0.071543016 0.19993809 0.19603027 4282863958
0.074332103 0.19993773 0.19603203 4282666577
0.077121198 0.19993737 0.19603378 4282403662
0.079910286 0.19993702 0.19603552 4283062105
0.082699373 0.19993666 0.19603726 4283127899
0.085488468 0.19993629 0.19603901 4282667093
0.088277556 0.19993593 0.19604075 4283324768
0.090602882 0.19891728 0.19504134 4282073931
0.093377739 0.19891693 0.19504309 4282074447
0.096152604 0.19891657 0.19504482 4282140749
0.098927453 0.19891621 0.19504656 4282863442
0.10170232 0.19891585 0.19504829 4283126612
0.10447717 0.1989155 0.19505003 4282864467
0.10725204 0.19891514 0.19505176 4282601038
0.10946352 0.19789654 0.19405229 4282798420
0.11222415 0.1978962 0.19405402 4282864213
0.11498477 0.19789584 0.19405575 4283192921
0.11774541 0.19789548 0.19405748 4282733141
0.12050604 0.19789512 0.19405921 4282469968
0.12326666 0.19789477 0.19406094 4282140233
0.1260273 0.19789441 0.19406265 4282535507
0.12812494 0.19687581 0.19306311 4281218624
0.13087134 0.19687545 0.19306484 4282534736
0.13361773 0.19687511 0.19306655 4283323225
0.13636413 0.19687475 0.19306827 4283455581
0.13839063 0.19585617 0.19206868 4281877063
0.13892043 0.19280113 0.18906648 4281876031
0.14086153 0.19178253 0.18806684 4281411603
0.14353678 0.19178219 0.18806851 4282529563
0.1454352 0.19076364 0.18706885 4282791189
0.14809622 0.19076329 0.18707052 4282330125
0.15075724 0.19076295 0.18707217 4282724883
0.15341826 0.19076261 0.18707384 4282067207
0.15607928 0.19076227 0.18707551 4282396686
0.1587403 0.19076192 0.18707716 4281410821
0.16053911 0.18974334 0.18607745 4281937170
0.16318589 0.189743 0.1860791 4281608207
0.16583268 0.18974265 0.18608075 4281870865
0.16847947 0.18974233 0.18608241 4282792476
0.17112626 0.18974198 0.18608406 4282001167
0.17377305 0.18974164 0.18608572 4282396186
0.17641984 0.1897413 0.18608738 4282133780
0.17906664 0.18974096 0.18608904 4280950272
0.18171342 0.18974061 0.18609069 4281936651
0.18436021 0.18974027 0.18609235 4282265360
0.18700701 0.18973994 0.186094 4283120668
0.18965378 0.1897396 0.18609565 4281345028
0.19230057 0.18973926 0.18609731 4282068496
0.19494738 0.18973891 0.18609896 4282134289
0.19759415 0.18973857 0.18610062 4282462995
0.20024094 0.18973823 0.18610227 4282660117
0.20288773 0.18973789 0.18610393 4283120664
0.2044304 0.18871938 0.18510404 4283054616
0.20706296 0.18871903 0.1851057 4281606663
0.20856296 0.18770051 0.1841058 4282001935
0.2111813 0.18770018 0.18410744 4281279496
0.21379961 0.18769984 0.18410906 4281608461
0.21641795 0.18769951 0.1841107 4281673484
0.21903627 0.18769917 0.18411234 4281278980
0.22165461 0.18769883 0.18411398 4282265876
0.22427292 0.1876985 0.18411562 4281870603
0.22689126 0.18769816 0.18411726 4281212680
0.22826317 0.18667966 0.18311727 4281410314
0.23086727 0.18667933 0.18311889 4281278726
0.23347136 0.18667899 0.18312052 4281871374
0.23607546 0.18667866 0.18312216 4280951045
0.23867956 0.18667832 0.18312378 4281016585
0.24128366 0.18667799 0.18312541 4281543184
0.24388775 0.18667765 0.18312703 4281476620
0.24649185 0.18667732 0.18312867 4281411857
0.24773571 0.18565881 0.18212859 4280952077
0.25032556 0.18565848 0.18213022 4280491530
0.25291541 0.18565814 0.18213183 4280294153
0.25550529 0.18565781 0.18213345 4280754441
0.25809515 0.18565749 0.18213508 4281477135
0.26068503 0.18565714 0.18213668 4281212678
0.26327491 0.18565682 0.18213831 4281541386
0.26586476 0.18565649 0.18213993 4281607691
0.26698056 0.18463802 0.18113978 4281476620
0.26955619 0.1846377 0.18114139 4280951561
0.27213183 0.18463735 0.181143 4280688394
0.27470747 0.18463702 0.18114461 4281016847
0.27575207 0.18361855 0.18014441 4281214478
0.27831349 0.18361822 0.18014601 4280950536
0.28087488 0.18361789 0.18014762 4280556296
0.2834363 0.18361756 0.18014921 4280951561
0.28599772 0.18361723 0.18015082 4281082633
0.28855911 0.18361691 0.18015242 4281477135
0.29112053 0.18361656 0.18015403 4281081608
0.29205132 0.18259813 0.17915376 4281015560
0.29459849 0.1825978 0.17915535 4280753159
0.29714569 0.18259747 0.17915694 4280885775
0.29969287 0.18259715 0.17915854 4279898887
0.30224001 0.18259682 0.17916013 4279833602
0.30478719 0.18259649 0.17916173 4280292867
0.30733439 0.18259616 0.17916332 4281015306
0.30988157 0.18259583 0.1791649 4281015560
0.31242874 0.18259551 0.1791665 4280884486
0.31321722 0.18157709 0.17816614 4282529054
0.31575015 0.18157676 0.17816773 4280950538
0.31828308 0.18157643 0.17816931 4281345039
0.32081607 0.1815761 0.17817089 4281345041
0.32153338 0.18055768 0.1771705 4280753418
0.3240521 0.18055736 0.17717206 4281608723
0.32657084 0.18055703 0.17717364 4281016585
0.32908955 0.1805567 0.17717522 4280819466
0.33160827 0.18055639 0.17717679 4280162565
0.33412698 0.18055606 0.17717837 4279899650
0.33664569 0.18055573 0.17717995 4280294152
0.33916444 0.1805554 0.17718153 4280622346
0.33975372 0.179537 0.17618105 4280425224
0.34225819 0.17953669 0.17618261 4280425224
0.34476268 0.17953636 0.17618419 4280162565
0.34726718 0.17953603 0.17618576 4280162311
0.34977165 0.17953572 0.17618732 4280491276
0.35227615 0.17953539 0.17618889 4280951052
0.35478064 0.17953508 0.17619045 4280228613
0.35728511 0.17953475 0.17619202 4280753672
0.35978961 0.17953442 0.17619358 4280425224
0.36023659 0.17851605 0.17519301 4280227844
0.36272684 0.17851573 0.17519458 4280820236
0.36521706 0.1785154 0.17519613 4279833602
0.36770734 0.17851509 0.17519769 4279767555
0.37019759 0.17851476 0.17519924 4279507717
0.37268788 0.17851445 0.17520081 4280097288
0.37517813 0.17851412 0.17520235 4280030725
0.37766841 0.17851381 0.17520392 4280096265
0.38015863 0.17851348 0.17520547 4280030725
0.38264889 0.17851317 0.17520703 4279899141
0.38293931 0.17749481 0.17420636 4279637508
0.38541532 0.1774945 0.17420791 4279308032
0.38789138 0.17749418 0.17420946 4279439110
0.39036742 0.17749386 0.17421101 4279571460
0.39284343 0.17749354 0.17421256 4279176448
0.39531946 0.17749321 0.17421411 4279045376
0.39779547 0.1774929 0.17421566 4279045376
0.40027151 0.17749259 0.17421719 4279505412
0.4004339 0.17647421 0.17321645 4279636483
0.40289569 0.1764739 0.173218 4279964164
0.40535745 0.17647359 0.17321953 4279898371
0.40781927 0.17647327 0.17322107 4279701507
0.40791044 0.17545494 0.17222027 4279308293
0.41035801 0.17545463 0.17222181 4279768328
0.41280562 0.1754543 0.17222334 4279636483
0.41525316 0.17545399 0.17222486 4279439104
0.41770074 0.17545368 0.1722264 4279636228
0.42014831 0.17545336 0.17222793 4279438849
0.42259586 0.17545305 0.17222947 4279045376
0.42504343 0.17545274 0.17223099 4279373824
0.42749101 0.17545243 0.17223252 4279636744
0.42743993 0.17443408 0.17123164 4279439619
0.42987326 0.17443377 0.17123316 4279504642
0.43230662 0.17443345 0.17123468 4279635974
0.43473995 0.17443314 0.1712362 4279635974
0.43717328 0.17443283 0.17123772 4279570181
0.43960664 0.17443252 0.17123926 4279307522
0.44203997 0.1744322 0.17124078 4279242500
0.4444733 0.17443189 0.1712423 4279373572
0.44690666 0.17443158 0.17124382 4279439879
0.44933996 0.17443126 0.17124534 4279243270
0.45177329 0.17443095 0.17124686 4279308293
0.45420665 0.17443064 0.17124838 4279636228
0.45663998 0.17443033 0.17124991 4280031241
0.45638967 0.17341204 0.1702489 4279833348
0.45611092 0.17239374 0.16924788 4279767300
0.45580366 0.17137547 0.16824684 4279242500
0.45546797 0.17035717 0.16724578 4279176968
0.45236325 0.16832091 0.16524214 4279635974
0.44920161 0.16628468 0.16323845 4280952597
0.44321403 0.16323046 0.16023217 4282136356
0.43714109 0.16017626 0.15722582 4282465320
0.43657768 0.15915799 0.15622461 4282465575
0.43317416 0.15712178 0.15422079 4282531368
0.43536559 0.15712149 0.15422216 4282925098
0.43187666 0.1550853 0.15221828 4283056942
0.42833081 0.1530491 0.15021436 4282991919
0.42759669 0.15203086 0.14921305 4282860587
0.42971694 0.15203059 0.14921437 4283189038
0.43183723 0.15203032 0.1492157 4283057196
0.43104616 0.15101209 0.14821436 4283254316
0.43022665 0.14999387 0.14721298 4283385902
0.42850226 0.14795743 0.14521022 4283319854
-0.16242325 0.21727826 0.20989838 4283323485
-0.15867491 0.21624491 0.20889986 4282403666
-0.15570083 0.21624452 0.20890172 4283192153
-0.15272675 0.21624415 0.20890358 4283257939
-0.14975268 0.21624376 0.20890544 4282928721
-0.14677861 0.21624337 0.20890731 4283850083
-0.14380452 0.216243 0.20890915 4282995029
-0.14083046 0.21624261 0.20891102 4282534482
-0.13785636 0.21624222 0.20891288 4283521633
-0.13488229 0.21624185 0.20891474 4283126875
-0.13127625 0.2152085 0.20791614 4283850083
-0.1283164 0.21520813 0.20791799 4282469714
-0.12535655 0.21520774 0.20791984 4282798938
-0.12239671 0.21520737 0.20792168 4281877838
-0.11943685 0.21520698 0.20792353 4282074963
-0.11647701 0.21520661 0.20792539 4282864986
-0.11351716 0.21520622 0.20792724 4283127899
-0.11055731 0.21520585 0.20792909 4283325021
-0.10759746 0.21520546 0.20793094 4282667348
-0.10413373 0.21417215 0.20693226 4282732891
-0.10118811 0.21417178 0.20693411 4283456354
-0.098242491 0.21417139 0.20693594 4283193696
-0.094835684 0.21313809 0.20593721 4282536023
-0.09190429 0.2131377 0.20593905 4282864733
-0.088972904 0.21313733 0.20594089 4282404696
-0.08604151 0.21313696 0.20594272 4282010452
-0.083110124 0.21313657 0.20594455 4282010452
-0.08017873 0.2131362 0.20594639 4281878868
-0.077247344 0.21313582 0.20594822 4282142040
-0.073954374 0.21210255 0.20494941 4282996319
-0.071037218 0.21210217 0.20495124 4283390561
-0.067786932 0.21106888 0.2039524 4283061082
-0.064884 0.21106851 0.20395422 4282666324
-0.061981078 0.21106814 0.20395604 4283588195
-0.059078146 0.21106777 0.20395786 4283456609
-0.056175221 0.21106739 0.20395967 4282075726
-0.053272288 0.21106702 0.20396148 4282865240
-0.050369363 0.21106665 0.20396329 4282666840
-0.047466431 0.21106628 0.20396511 4282930010
-0.04434422 0.210033 0.2029662 4282995030
-0.041455522 0.21003263 0.20296802 4283717726
-0.038566824 0.21003225 0.20296982 4283587425
-0.035678126 0.21003188 0.20297162 4282470230
-0.032789424 0.21003151 0.20297343 4282010193
-0.029752593 0.20899825 0.20197447 4281286215
-0.026878124 0.20899788 0.20197627 4282470491
-0.024003655 0.2089975 0.20197806 4282009424
-0.021129187 0.20899713 0.20197986 4283456870
-0.018254718 0.20899676 0.20198166 4282338387
-0.015380249 0.2089964 0.20198345 4283062621
-0.012443031 0.20796314 0.20098443 4281745991
-0.0095827915 0.20796277 0.20098622 4282864470
-0.0067225527 0.20796241 0.20098801 4282535761
-0.0038623135 0.20796204 0.2009898 4283325021
-0.0010020743 0.20796166 0.20099159 4282930519
0.0018581648 0.20796131 0.20099337 4282536023
0.0047184033 0.20796093 0.20099516 4282535252
0.0075417822 0.2069277 0.19999607 4282864213
0.01038779 0.20692733 0.19999784 4283521886
0.0132338 0.20692696 0.19999963 4282601816
0.01607981 0.2069266 0.2000014 4282010194
0.018832037 0.2058934 0.19900228 4282667093
0.021663819 0.20589304 0.19900405 4282337614
0.024495596 0.20589267 0.19900583 4282996058
0.027327374 0.20589231 0.19900759 4282536277
0.030159155 0.20589194 0.19900936 4282403919
0.032990932 0.20589158 0.19901113 4282600530
0.035643551 0.20485836 0.19801193 4282666324
0.0384611 0.20485801 0.19801369 4282666324
0.041278649 0.20485763 0.19801545 4282206288
0.044096202 0.20485727 0.19801722 4282995803
0.046913747 0.20485692 0.19801898 4283061597
0.049731296 0.20485654 0.19802074 4282075472
0.052548844 0.20485619 0.1980225 4282732372
0.055087619 0.20382299 0.19702323 4282468685
0.05789094 0.20382263 0.19702499 4282404182
0.060694259 0.20382227 0.19702673 4282469975
0.063497581 0.2038219 0.19702849 4282139980
0.066300891 0.20382154 0.19703025 4282403407
0.069104217 0.20382118 0.19703199 4282996058
0.071543381 0.20278801 0.19603266 4282600784
0.074332468 0.20278765 0.1960344 4282797656
0.077121563 0.20278729 0.19603615 4282403407
0.079910651 0.20278694 0.19603789 4282994776
0.082699738 0.20278656 0.19603963 4282995803
0.085488833 0.20278621 0.19604138 4282470230
0.087828383 0.20175304 0.19504198 4283193439
0.090603247 0.20175268 0.19504371 4282534736
0.093378104 0.20175232 0.19504546 4281943884
0.096152969 0.20175196 0.19504718 4281878345
0.098927818 0.2017516 0.19504893 4282403919
0.10170268 0.20175125 0.19505066 4282995796
0.10447754 0.20175089 0.1950524 4282995796
0.10670326 0.20071773 0.19405292 4282863188
0.10946389 0.20071737 0.19405465 4283192153
0.11222451 0.20071702 0.19405638 4282600784
0.11498514 0.20071667 0.19405811 4283192921
0.11774576 0.20071632 0.19405983 4283192153
0.1205064 0.20071596 0.19406156 4282600530
0.12326702 0.2007156 0.19406328 4282534998
0.12537889 0.19968247 0.19306374 4281877063
0.1281253 0.19968212 0.19306545 4281284417
0.1308717 0.19968176 0.19306718 4282337360
0.13361809 0.19968142 0.19306889 4282863704
0.13636449 0.19968106 0.19307061 4282930265
0.13839099 0.19864792 0.19207102 4282140233
0.13892077 0.19554925 0.18906876 4283848278
0.14086187 0.19451612 0.18806912 4282068496
0.14353712 0.19451578 0.18807079 4281937421
0.14543554 0.19348268 0.18707111 4281607686
0.14809656 0.19348234 0.18707278 4282462225
0.15075758 0.193482 0.18707444 4282199564
0.1534186 0.19348165 0.18707611 4282396686
0.15607962 0.19348131 0.18707778 4282791444
0.15789267 0.19244821 0.18607804 4282330893
0.16053945 0.19244787 0.1860797 4282397468
0.16318624 0.19244753 0.18608135 4282200598
0.16583303 0.19244719 0.186083 4282331154
0.16847982 0.19244686 0.18608467 4282922523
0.1711266 0.19244651 0.18608633 4281738763
0.17377339 0.19244617 0.18608798 4281409805
0.17642018 0.19244583 0.18608963 4282067733
0.17906699 0.19244549 0.18609129 4282529047
0.18171376 0.19244514 0.18609294 4282068237
0.18436055 0.1924448 0.1860946 4282857753
0.18700735 0.19244447 0.18609625 4282660117
0.18965413 0.19244413 0.18609791 4282265361
0.19230092 0.19244379 0.18609956 4281871119
0.19494772 0.19244345 0.18610123 4281805325
0.19759449 0.1924431 0.18610288 4282594840
0.20024128 0.19244276 0.18610454 4281542668
0.20179819 0.19140969 0.18510464 4283054102
0.20443074 0.19140935 0.18510629 4282131975
0.2070633 0.19140901 0.18510793 4282461710
0.2085633 0.19037595 0.18410802 4282330384
0.21118164 0.19037563 0.18410966 4282265361
0.21379995 0.19037528 0.1841113 4282331923
0.2164183 0.19037496 0.18411294 4281606663
0.21903661 0.19037461 0.18411458 4282133262
0.22165495 0.19037427 0.18411621 4282068496
0.22427326 0.19037394 0.18411785 4282068496
0.22689161 0.1903736 0.18411949 4281608461
0.22826351 0.18934056 0.18311948 4281476873
0.23086761 0.18934023 0.18312111 4281805325
0.23347171 0.18933989 0.18312274 4281607945
0.2360758 0.18933956 0.18312436 4281476361
0.23737657 0.18830651 0.18212432 4281673484
0.23996644 0.18830618 0.18212594 4281805326
0.2425563 0.18830585 0.18212757 4281608715
0.24514617 0.18830551 0.18212917 4281871638
0.24773605 0.18830518 0.1821308 4280951306
0.25032592 0.18830486 0.18213242 4280688394
0.25291577 0.18830451 0.18213403 4280096772
0.25550565 0.18830419 0.18213566 4280688394
0.2580955 0.18830386 0.18213728 4280951052
0.26068538 0.18830352 0.1821389 4281543184
0.26327527 0.18830319 0.18214051 4281344775
0.26586512 0.18830284 0.18214214 4281213703
0.26698089 0.18726984 0.18114197 4281806099
0.26955652 0.18726951 0.18114358 4281017354
0.27213216 0.18726917 0.18114519 4280030720
0.27470779 0.18726884 0.1811468 4281016331
0.27575243 0.18623583 0.18014659 4282002964
0.27831385 0.1862355 0.1801482 4281674770
0.28087524 0.18623517 0.18014979 4280556549
0.28343666 0.18623485 0.1801514 4280359939
0.28599808 0.18623452 0.180153 4281741076
0.28855947 0.18623418 0.18015461 4281477135
0.28950447 0.18520118 0.17915434 4281345294
0.29205164 0.18520086 0.17915593 4281147917
0.29459882 0.18520053 0.17915753 4281082378
0.29714602 0.1852002 0.17915912 4281213194
0.2996932 0.18519987 0.1791607 4280556550
0.30224034 0.18519954 0.17916229 4280884488
0.30478752 0.18519922 0.17916389 4281016331
0.30733472 0.18519889 0.17916548 4281148172
0.3098819 0.18519856 0.17916708 4281016331
0.31068462 0.18416558 0.17816672 4281080326
0.31321758 0.18416525 0.1781683 4281213196
0.31575048 0.18416494 0.17816989 4281015303
0.31828341 0.18416461 0.17817147 4281541905
0.31901503 0.18313165 0.17717107 4281607952
0.32153371 0.18313134 0.17717265 4281477136
0.32405242 0.18313101 0.17717421 4281016584
0.32657117 0.18313068 0.17717579 4280425478
0.32908988 0.18313035 0.17717737 4280227844
0.33160859 0.18313004 0.17717893 4280359431
0.33412731 0.18312971 0.17718051 4280884490
0.33664602 0.18312939 0.17718209 4281280017
0.33724955 0.18209647 0.17618161 4280951568
0.33975405 0.18209614 0.17618319 4281017874
0.34225851 0.18209583 0.17618476 4280491017
0.34476301 0.1820955 0.17618632 4280424708
0.34726751 0.18209517 0.17618789 4280228359
0.34977198 0.18209486 0.17618945 4280228359
0.35227647 0.18209453 0.17619102 4280359685
0.35478097 0.18209422 0.17619258 4280556550
0.35728544 0.18209389 0.17619415 4280490501
0.35774663 0.18106095 0.17519358 4281016338
0.36023691 0.18106063 0.17519513 4280753164
0.36272717 0.18106031 0.17519669 4280292613
0.36521739 0.18105999 0.17519824 4279439104
0.36770767 0.18105967 0.17519981 4280097288
0.37019792 0.18105935 0.17520137 4279899653
0.3726882 0.18105903 0.17520292 4280031495
0.37517846 0.1810587 0.17520449 4280293892
0.37766874 0.18105839 0.17520604 4279505152
0.38015896 0.18105806 0.1752076 4279439619
0.3804636 0.18002516 0.17420693 4279899654
0.38293964 0.18002483 0.17420848 4279570944
0.38541564 0.18002452 0.17421001 4279307520
0.38789171 0.18002421 0.17421156 4279768582
0.39036775 0.18002388 0.17421311 4279834375
0.39284375 0.18002357 0.17421466 4279899141
0.39531979 0.18002324 0.17421621 4279635712
0.39551061 0.17899035 0.17321546 4279570435
0.3979724 0.17899002 0.17321701 4279636483
0.40043423 0.17898971 0.17321855 4280227590
0.40289602 0.1789894 0.17322008 4280029697
0.40535778 0.17898908 0.17322163 4279964673
0.40546322 0.17795619 0.17222083 4280096772
0.40791076 0.17795588 0.17222236 4279636483
0.41035834 0.17795557 0.1722239 4279438849
0.41280594 0.17795524 0.17222543 4279438594
0.41525349 0.17795493 0.17222695 4279373572
0.41770107 0.17795461 0.17222849 4279504133
0.42014864 0.1779543 0.17223002 4279438594
0.42259619 0.17795399 0.17223154 4279307777
0.42504376 0.17795368 0.17223307 4279307777
0.4250069 0.1769208 0.17123219 4279571206
0.42744026 0.17692049 0.17123371 4279569665
0.42987359 0.17692018 0.17123523 4279307777
0.43230695 0.17691986 0.17123675 4279439619
0.43474028 0.17691955 0.17123827 4279110400
0.43717358 0.17691924 0.17123981 4279439365
0.43960693 0.17691892 0.17124133 4279439365
0.44204026 0.17691861 0.17124285 4278979330
0.44447359 0.1769183 0.17124437 4279176706
0.44690695 0.17691799 0.17124589 4279832325
0.44934025 0.17691767 0.17124741 4279307522
0.45177358 0.17691736 0.17124893 4279439619
0.45420694 0.17691705 0.17125046 4279898371
0.45397088 0.17588422 0.17024945 4279767555
0.45638999 0.1758839 0.17025095 4280161288
0.45611122 0.17485107 0.16924994 4279898372
0.45580399 0.17381825 0.16824888 4279373570
0.4554683 0.17278543 0.1672478 4278979328
0.45236358 0.1707201 0.16524413 4279569666
0.44920191 0.16865475 0.16324043 4280622864
0.43714139 0.16245911 0.15722772 4282202405
0.43657798 0.16142631 0.1562265 4282137639
0.43317446 0.15936102 0.15422267 4282400297
0.43253994 0.15832824 0.1532214 4282596391
0.42903677 0.15626293 0.15121748 4283056942
0.42833108 0.15523016 0.15021618 4283056942
0.42759699 0.15419738 0.14921485 4283057966
0.42971724 0.15419711 0.14921618 4282992173
0.43183753 0.15419684 0.1492175 4283189037
0.43395779 0.15419656 0.14921883 4283254570
0.4331525 0.15316379 0.14821747 4283320363
-0.16242287 0.22033174 0.20990093 4283322970
-0.15943454 0.22033137 0.20990279 4282600530
-0.15570045 0.21928346 0.20890425 4282928981
-0.15272637 0.21928309 0.20890611 4283586136
-0.14975229 0.2192827 0.20890798 4282796622
-0.14677821 0.21928231 0.20890984 4283586910
-0.14380412 0.21928194 0.2089117 4282863188
-0.14083005 0.21928155 0.20891355 4282665042
-0.13785598 0.21928117 0.20891541 4283323485
-0.13423572 0.21823329 0.20791681 4282798938
-0.13127586 0.2182329 0.20791866 4283588195
-0.12831602 0.21823253 0.20792051 4282338387
-0.12535617 0.21823214 0.20792235 4282536796
-0.12239632 0.21823177 0.20792422 4281549642
-0.11943647 0.21823138 0.20792606 4281482564
-0.11647662 0.21823101 0.20792791 4282928981
-0.11351677 0.21823062 0.20792976 4283587163
-0.11055692 0.21823023 0.20793161 4283324509
-0.10759707 0.21822986 0.20793347 4282206289
-0.10413335 0.21718204 0.20693476 4282863449
-0.10118772 0.21718167 0.20693661 4283521633
-0.098242104 0.21718128 0.20693846 4282996828
-0.094835296 0.21613342 0.20593971 4282799193
-0.091903903 0.21613303 0.20594154 4282864471
-0.088972524 0.21613266 0.20594338 4282536277
-0.08604113 0.21613228 0.20594521 4282273372
-0.083109744 0.2161319 0.20594704 4281944666
-0.08017835 0.21613152 0.20594887 4281812821
-0.077246964 0.21613115 0.20595071 4282141269
-0.073953994 0.21508332 0.2049519 4282863963
-0.071036838 0.21508294 0.20495372 4283587172
-0.067786552 0.21403512 0.20395488 4282732118
-0.06488362 0.21403475 0.20395669 4282797140
-0.061980698 0.21403438 0.20395851 4283587425
-0.059077766 0.21403401 0.20396033 4283390816
-0.056174841 0.21403363 0.20396215 4282601300
-0.053271908 0.21403326 0.20396395 4283323223
-0.05036898 0.21403289 0.20396577 4282469459
-0.047466051 0.21403252 0.20396759 4282995803
-0.044343844 0.2129847 0.20296867 4282797656
-0.041455142 0.21298432 0.20297047 4283258462
-0.038566444 0.21298395 0.20297228 4283390561
-0.035677746 0.21298358 0.20297408 4282404182
-0.032789048 0.21298321 0.2029759 4282273364
-0.029900344 0.21298283 0.2029777 4281548873
-0.026877748 0.21193503 0.20197871 4282798685
-0.024003278 0.21193466 0.20198052 4282601307
-0.021128811 0.21193428 0.2019823 4283522148
-0.018254342 0.21193391 0.20198411 4282074185
-0.015379873 0.21193354 0.20198591 4282995803
-0.012442657 0.21088576 0.20098686 4281811786
-0.0095824162 0.21088539 0.20098865 4282798165
-0.0067221778 0.21088503 0.20099044 4282601300
-0.0038619388 0.21088466 0.20099223 4283127644
-0.0010016998 0.21088429 0.20099403 4282602070
0.0018501367 0.20983653 0.19999494 4282404435
0.0046961457 0.20983616 0.19999671 4283126875
0.0075421552 0.20983578 0.1999985 4282601554
0.010388164 0.20983543 0.20000027 4282864471
0.013234173 0.20983505 0.20000204 4282469975
0.016080182 0.20983469 0.20000383 4282009170
0.018832408 0.20878693 0.19900469 4282733145
0.021664189 0.20878658 0.19900647 4282404435
0.024495969 0.2087862 0.19900824 4282536277
0.027327744 0.20878585 0.19901 4282404435
0.030159526 0.20878547 0.19901177 4282271821
0.032991301 0.20878512 0.19901355 4282601300
0.03564392 0.20773737 0.19801433 4282732372
0.038461469 0.207737 0.19801609 4282666324
0.041279018 0.20773664 0.19801785 4282666839
0.04409657 0.20773628 0.19801962 4282995803
0.046914116 0.20773591 0.19802138 4282995803
0.049731664 0.20773555 0.19802314 4282601046
0.052284669 0.20668779 0.19702387 4282797911
0.055087987 0.20668744 0.19702561 4281811532
0.057891309 0.20668708 0.19702737 4282272340
0.060694627 0.20668671 0.19702913 4282469975
0.063497953 0.20668635 0.19703087 4282469975
0.066301264 0.20668599 0.19703263 4282010193
0.06910459 0.20668563 0.19703439 4282733399
0.071543746 0.20563792 0.19603503 4282534736
0.074332833 0.20563756 0.19603677 4283061082
0.077121928 0.2056372 0.19603853 4282403666
0.079911016 0.20563683 0.19604027 4282469459
0.082700104 0.20563647 0.19604202 4282404180
0.085489199 0.20563611 0.19604376 4282732888
0.087828748 0.20458841 0.19504434 4283126875
0.090603612 0.20458806 0.19504608 4282337614
0.093378469 0.2045877 0.19504781 4282403407
0.096153334 0.20458734 0.19504955 4281944138
0.098928183 0.20458698 0.19505128 4282009677
0.10170304 0.20458663 0.19505303 4282864213
0.1044779 0.20458627 0.19505475 4282995796
0.10670362 0.20353858 0.19405527 4282929236
0.10946424 0.20353822 0.194057 4283192153
0.11222487 0.20353787 0.19405873 4282731602
0.1149855 0.20353752 0.19406046 4282928981
0.11774613 0.20353717 0.19406217 4283389787
0.12050676 0.20353681 0.1940639 4282534991
0.12263286 0.20248911 0.19306436 4283127391
0.12537925 0.20248877 0.19306608 4281614150
0.12812565 0.20248841 0.1930678 4281679175
0.13087206 0.20248805 0.19306952 4282271312
0.13361844 0.20248771 0.19307123 4282600791
0.13636485 0.20248735 0.19307294 4282536023
0.13839135 0.20143968 0.19207335 4282139979
0.13892113 0.1982974 0.18907106 4282337098
0.14086223 0.19724974 0.1880714 4282265368
0.14353748 0.1972494 0.18807307 4281409544
0.1454359 0.19620173 0.18707338 4281935888
0.14809692 0.19620138 0.18707505 4281804810
0.15075794 0.19620106 0.18707672 4282528272
0.15341896 0.19620071 0.18707837 4282923030
